# 3D point list with one line of data per point:
#   POINT3D_ID, X, Y, Z, R, G, B, ERROR, TRACK[] as (IMAGE_ID, POINT2D_IDX)
# Number of points: 373, mean track length: 5.0660356592559985
11946 -0.022713015785734033 2.0680855027525058 2.0287884923429949 217 210 118 0.2125333817978344 97 1304 59 1234
11947 -0.106016051099036 2.1532427293385998 1.9766964263731426 241 233 130 0.50439759638014359 97 1622 59 1500 69 1079
11948 -0.21265432300607232 2.3762080389581963 1.8882082226356152 250 240 139 0.12720064931762218 97 1560 59 1505
11994 -0.67543910156413511 1.5358819543126256 2.1555901048681068 0 0 0 2.3350296363500442 62 1578 92 1898 53 2273 15 2282
11995 -1.0341546600482203 2.3584626278411918 2.808403607843482 0 0 0 1.730586667847732 53 2555 15 2552 87 2463 7 1941 63 2274
11996 -0.66351324271726664 1.6352387781492235 2.1767636194640749 0 0 0 2.2368714845700088 63 2244 7 2030 29 1555
11997 0.19831486999037329 0.89285755024587665 1.5588256597949495 180 173 118 0.43190298286710638 83 1144 87 856 19 30
11998 0.35504002735831763 1.0779195468675498 1.6167340928611924 92 156 89 0.20403504206292977 63 114 19 45
11999 -0.41040969842971348 1.2738063644994126 1.9369882447263076 0 0 0 2.0772730825953261 14 335 47 235
12002 -0.5360570513694356 1.2659591582642657 2.0086878610203036 195 198 140 0.51966407503138801 59 133 19 82 67 35 6 29
12003 -0.53216061487323474 1.2696288946172147 2.0222126383299814 84 142 77 0.34254585416229327 59 138 19 87 29 72 67 39 6 30
12006 0.41218871207711227 1.2297307132790718 1.753234986380344 77 127 73 0.21575455627260029 7 150 19 104 29 116
12010 0.26845583861810596 1.283217671435458 1.8593101684651807 76 146 83 0.084445521873829588 59 137 19 119
12011 0.35421586143465666 1.3087050664255169 1.8447445233403095 86 148 87 0.050936384327951459 7 194 19 126
12012 0.31416022868332349 1.32777855168805 1.8823659499454684 73 139 77 0.13369756153427145 7 213 19 130 29 140
12013 0.543349479610441 1.3361529818103388 1.8154555054124359 252 250 252 0.094111219475661145 59 155 19 136 29 174
12014 -0.031919825109203062 1.3043645756208517 2.2712009994744533 84 114 73 0.28533651077771344 63 305 19 144 29 913
12015 0.41910107028108989 1.7465558046528171 1.6734366129913136 254 248 165 0.015542973716636715 97 210 19 181
12016 0.39059041190371047 1.8039643164242825 1.6595013868830872 71 125 62 0.087929801294249085 59 202 19 197 29 274
12019 -0.4175467234979543 2.2428693843167733 1.9575973845981405 142 224 109 0.12781455351750237 63 1117 19 269 29 301 91 1417 52 423
12022 -0.44360708521617592 2.3289383479213361 1.9441527961329912 243 228 129 0.11115792304376373 7 453 19 285
12023 -0.0087880547024099098 2.1272789648865942 1.996158195754216 106 163 85 0.060478217072674742 59 313 19 290
12024 -0.59177328752266523 2.0150788226201803 2.6366669133942944 107 187 93 0.091290932146790238 83 298 19 293
12025 -0.084174744524144349 2.2142829681775638 1.9507608695355689 114 178 90 0.076697868203162767 14 216 19 297
12026 -0.12572261351152866 2.2403607001943069 1.9417622028893915 109 182 91 0.055740038910218087 59 331 97 372 19 298
12027 -0.14191939122030553 2.2587930543525916 1.9336614354958384 125 196 99 0.14839258049991444 59 336 19 300 29 342
12028 -0.15038135302473793 2.2657102051305502 1.9335329187568737 126 197 100 0.12337664601100352 14 236 19 302
12030 0.42844869997724228 1.6955344668991312 2.5721298367449856 245 240 252 1.1449923825166399 7 897 19 315
12031 0.3164152343313329 2.1456801940977219 1.8736748167937123 92 67 45 0.69615947556695279 59 315 19 317 29 391
12035 -0.42992098041258597 1.2987008191109435 1.6883087082081012 0 0 0 2.0391309742332604 38 137 74 188
12036 -0.67066400275931382 2.0571879857664155 2.065530181300951 0 0 0 0.082537272982982912 17 599 87 562
12037 0.38897287805456404 2.0146331275518397 2.1412094757989437 81 139 65 0.2599746948461038 97 379 19 335 29 779 67 334 5 236 40 160 16 207 58 78 21 65 45 50
12041 -0.055832159204953775 2.4378412676778631 1.8953829239231408 234 229 137 0.13682574125097718 83 590 19 363
12042 -0.055085717335434929 2.4374642455896858 1.8962466360716104 234 229 137 0.4279625985204194 59 399 97 444 19 364 63 624 15 1370 17 1440
12046 0.0023680917440478972 2.2906138308002264 2.2619354477338054 87 140 79 0.39681457011683019 48 1101 19 386
12047 0.098466020299099677 2.4260836804981003 1.9044937798408499 94 157 86 0.39575751410725363 62 769 97 457 19 388 67 313 26 611
12048 -0.37202976220646172 2.5867124730180402 2.0565635602522594 113 91 62 0.11499342807920308 97 493 19 398 69 308
12050 0.10247168095266178 2.4700733544477687 1.8968551374624572 197 202 120 0.074277708311065838 62 776 97 463 19 402
12055 0.16243152565935354 2.503713213040073 1.9080936795619032 60 107 60 0.20540941511799812 83 637 97 488 19 424 67 354
12056 0.56087555683690848 1.9307594649675976 2.780584870168243 248 251 255 0.14188355767065408 59 456 19 428 69 886
12057 0.22466744557325888 2.5202650661464299 1.9706164388380587 101 169 94 0.10769965261368177 59 464 19 445
12058 0.40676872240899631 2.2856746322300867 2.3143025284722443 84 66 47 0.96606249850671733 59 471 19 448 26 666
12059 0.54420853918038448 2.0120508379089515 3.0368618516319819 1 1 1 1.1022567938447831 59 1145 19 460 29 1379 19 1363 26 407
12060 0.18281824425188703 2.6354555165438986 1.9823900648239725 218 200 190 1.1506663621293303 59 897 97 548 19 462
12061 0.14772700969859315 3.0365760459506439 2.5356215439889085 1 1 1 0.21463667161767291 83 656 19 482
12062 0.027937571086107758 0.65780318508216928 1.4937590917854242 211 168 133 0.67881482984154995 19 485 88 2
12063 0.14380810040910447 0.76926578252124633 1.4794509502487758 64 46 29 0.058734001909780231 59 548 19 493 69 393
12064 0.16063099476548628 0.78737361425597929 1.5073252278812754 215 219 235 0.28839142876516571 59 916 19 498 26 707 20 673
12066 0.26912821652323793 1.1315100204374176 1.6885278258472567 163 168 119 0.24001307309593883 97 622 19 533 59 590 87 914
12069 -0.072842359790773803 2.1171259936776115 1.991603679414115 0 0 0 0.0038395692716511123 57 523 91 1330
12071 0.40362130583626787 1.1634557474000582 1.6771788308788731 70 138 75 0.24727017973399776 7 716 97 631 19 540 29 579 69 410 26 434 20 432
12072 0.43427793057237535 1.1704343823405996 1.6907565807151457 61 112 61 0.3164247452048991 7 720 19 543 26 436 20 433 75 16
12073 0.13084870780181204 1.1907282669265655 1.8528757858179927 73 149 84 0.047896135339444285 97 647 19 547
12075 0.45524099742176743 1.2455087214144893 1.7855302280990384 141 153 111 0.10944247223187774 59 110 19 556 26 464
12077 0.31121390085619649 0.57306199911215761 2.9452683885560713 0 0 0 0.10371479147977232 7 765 87 920
12078 -0.19671647755211402 0.84486013914999003 2.8255483596025535 136 145 98 0.25175008292390133 7 223 19 572
12079 -0.4244476980024583 1.3627693181904437 2.5538368549138881 130 127 82 0.061788597689398678 97 235 19 601 29 606 83 1176
12080 0.52519563473750541 1.5442530731327877 2.1946031855722943 4 4 4 1.9895423229360121 19 665 26 186 44 417 18 489 35 605 100 377 25 354 46 48 44 50
12081 0.52456851263423421 1.5448027663837149 2.1951653912782301 4 4 4 1.9778708091160464 19 666 35 606 18 490 26 187 27 298 44 51 44 418 100 378 25 355 46 47
12082 -1.1283418898106834 1.3393516701810342 3.70951481656784 226 218 123 2.1635465129604725 97 802 19 679
12083 -0.21736047813574202 2.1704229540514692 1.9620719100994555 240 226 130 0.091958771045893631 97 1094 19 708 29 722
12084 -0.13573424524405039 2.1730746441236182 1.9650100271663646 200 214 117 0.091469139048465722 59 1042 19 713
12086 -0.3624760624859022 2.3378409747786555 1.9289134613956607 134 219 108 0.14786144831841636 59 784 19 731
12087 0.53629540753504146 1.7377236703979717 2.3747275974280031 102 80 56 0.34149073431535226 97 793 19 739 29 1031 83 1002
12088 0.32908601826292111 2.1418913565693392 1.8678001637365915 255 231 177 0.69250622394017425 59 766 19 748 69 169
12090 -0.12668378146903406 2.3670813844637699 1.9096656114109323 122 206 104 0.11504776473523458 9 667 19 759
12091 -0.098216528970061251 2.4339533402018967 1.8924719193175661 119 204 104 0.19853475011717281 59 820 19 771
12092 0.15143772601329622 2.2868516672062431 1.9690428220923617 70 131 75 0.23391844827510971 32 643 19 773 26 258 20 214
12093 0.3719776210932727 2.2815519228697996 2.0168465921844074 96 159 94 0.53650524009207257 59 829 19 797 75 199
12094 0.20182241402514861 2.4152430245592242 1.9490185334311325 62 130 74 0.0099325762746197942 97 868 19 806
12095 0.28658514759288772 2.423826072973839 2.0101848942514677 163 182 127 0.2265184392458536 59 861 19 813 69 609 26 649 20 589
12096 0.38513653209100712 2.3596618316444116 2.209007132479508 250 250 255 0.27692473855783128 59 872 19 826 69 644 26 852 75 486
12097 0.33807458097373794 2.4524784805490194 2.1717831879111764 98 72 44 0.54021426052481114 59 496 19 832 69 870 26 668
12098 0.3604094996665867 2.4279605848360868 2.2112252395204441 240 241 250 0.33626799058759677 59 497 19 833 26 676 20 629
12099 0.33347916030580482 2.4714993019015372 2.1691148533984226 104 78 49 0.20602823506231915 59 891 19 834 26 857
12100 -0.055138018438789259 0.69046454853832429 1.5511334080429273 211 213 227 0.024664575262618262 7 1086 19 857
12101 0.090502310793029561 0.75986462836869262 1.5228868476047024 205 209 223 0.6322273866993644 59 914 19 860 69 400 26 705 20 425
12102 -0.1734088146326386 0.69501216436352853 1.6841109578814117 192 190 199 1.4901135365050215 59 557 19 862 29 863
12103 -0.41254533835213542 1.0364288756615856 2.0904295068402261 241 217 176 1.0834047821551065 59 949 19 884 29 1120
12105 -0.46634791044050028 1.1675036022411223 2.0610046882226416 104 160 86 0.32194195879390286 59 954 19 893 67 926 69 734 26 723 20 692 75 531
12106 -0.7371684218474448 1.5016769659993427 1.9684665579223872 0 0 0 1.8105335931897022 97 1249 19 907 29 900
12107 -0.97895442740629612 2.1765008866885616 2.2334869133432713 3 2 2 1.5533356633395758 64 793 19 966
12113 0.10736308007407816 2.1267922176903928 2.0129243050021435 238 225 130 0.48964041060077157 83 1365 19 1000
12115 -0.23725256678342449 2.3297071659938124 1.91823130157038 120 209 103 0.082785801615235785 59 1059 19 1002 29 1017
12117 -0.80576009965577189 2.1479400608145371 2.8584917570989523 233 231 138 0.85609330137288675 53 1820 19 1018
12118 0.14563058312548796 1.0483880338755647 1.680720256391957 0 0 0 0.067688972145425769 47 1366 94 1389
12119 0.35318464327773169 2.1901196689237006 1.9064479205038807 255 255 255 0.24309112853711712 7 962 19 1027 29 794 83 605 69 788 20 736
12122 0.38313590775943829 2.1871050719622049 2.0470903645008884 107 150 85 0.23110512968938013 59 809 19 1046 29 1075
12123 0.0096572548463208039 2.4392960722509462 1.9033449029384468 105 186 96 0.050877906592271496 97 1149 19 1048
12124 0.40840955307372562 2.3113487538835304 2.2860233748019994 98 78 57 0.21023417140037245 59 1127 19 1076 29 826
12126 -0.16533827706796325 1.9186622151898589 2.077327850266923 200 212 116 0.30523709409813365 59 1017 19 1163 29 1194
12127 0.015787447525792156 2.1357410232062928 1.67259382574603 112 183 89 2.0612491162163371 3 1938 19 1166
12129 -0.30091665587741562 2.2974848672469439 1.9330485068206373 246 229 135 0.40933603266771051 17 2385 19 1186
12131 -0.19663219674584254 2.3426411418556774 1.9172354675980932 178 221 118 0.047491771602017056 64 1950 19 1198
12132 -0.35814189010315839 2.4708410508189731 1.921093778922875 155 222 104 0.41054074759063203 59 1283 19 1206 29 1228
12133 0.16306301531960529 2.3370433904334735 1.9571039754174819 158 164 101 0.93587435303056865 83 1606 97 1348 19 1217 26 985 69 983
12134 -0.39769040442803999 2.5649640621618572 2.0505900202960796 242 234 237 0.31598914739523998 59 1303 19 1219 69 850 26 836 20 590
12135 -0.17533911694061241 2.612898815163097 2.1178366002609614 241 241 252 1.618960177718791 7 1720 19 1227 26 1104
12136 -0.15803647463097587 2.6634989705582766 2.1325805757711818 0 0 0 0.006836851109959634 63 1838 19 1229
12137 0.32840644489242449 2.4989113222400432 2.2116082385213156 255 255 255 0.91402297793657838 7 1351 59 1436 19 1235 29 1275 67 904 26 1173 20 1089 6 834 5 662 77 626
12139 0.51605947665334329 1.1979060345590542 1.6992231084408778 217 223 239 0.50878230122197909 59 1455 19 1258 97 1519
12140 -0.083381232404641431 2.4136639140385587 1.8903379980547563 125 207 106 0.26749158224989977 97 1471 19 1333
12142 -0.68434175498172589 1.7744669225842149 2.2692670383994638 164 214 107 0.8007778293775587 59 1385 19 1391 29 1395
12143 0.5261697243479676 1.6239525336729683 2.2436489216579441 255 255 255 1.0834737901676827 7 1463 19 1410 29 1413 83 1810 69 1222 26 1197 67 1262 20 1106
12144 -0.025539064725320127 2.0114862495081458 2.0373252907504087 205 205 115 0.45459618209789704 7 1792 19 1412 29 1410
12145 -0.34843466832530273 2.3641050985949339 1.9258337370641425 200 225 123 1.0209998552178225 32 1943 59 1410 19 1419
12146 -0.62293128097966965 2.1590598999790518 2.6342448461304793 225 226 130 1.1342115610232388 83 1800 19 1422
12147 -0.52594574346746825 1.9571567396705194 2.078292787806669 195 228 117 0.84370216487079419 59 1482 19 1466 29 1473
12148 0.28733064144797998 2.5269981947099684 2.1661241977732142 255 255 255 0.074414383812977131 97 1642 19 1488
12149 0.22938952464706786 2.6645360073201876 2.1074708206606303 255 255 255 0.74222743668796942 83 1754 97 1587 19 1490 29 1496 69 1283 26 1254 20 1155
12150 0.28370657307803615 0.84036347356416452 1.4638612578376706 87 66 44 0.94177168100242703 15 2510 19 1494 53 2515 29 1449 26 1176 14 1877
12151 0.37158281960323603 2.1734124032608935 1.9279845102069995 255 255 255 0.5980183943448063 83 1900 19 1523 29 1545 26 1274
12153 -0.72232970273811359 1.4605910804560835 1.8926741422928655 236 234 234 0.78864559685148516 59 1663 19 1550 69 1261 26 1260 20 1130
12155 -0.24551887934179342 2.449088904964245 1.9282105065409889 164 203 114 0.8541759996266105 59 1689 19 1573 29 1575
12156 0.37425664567256872 1.2944021630733396 1.8187364878679588 106 155 95 1.1723679367383277 59 1700 19 1583 69 1325 26 1290 20 1185
12157 0.5407957599005131 1.7732003321495933 2.4341038585534616 255 255 255 0.99486474978592609 19 1590 29 1603 26 1307 20 1206
12158 -0.7854776532636123 1.7150101432606684 2.2082282110573415 0 0 0 0.59868979267828104 59 1719 63 2360 67 1317 7 2043
12159 0.34696364187464873 1.9717003675417886 1.7389604083502637 247 255 255 1.0671343222757161 59 1722 19 1603
12160 0.53974051881767071 1.4716276776437676 1.9092021312064997 255 255 255 1.9163465340342738 97 1769 19 1617 29 1622 26 1314 69 1355 20 1218
12161 0.19053649933256472 2.3519517861875228 1.9678289191323597 191 183 124 0.64359273461826882 3 1943 84 1609 83 1746 19 1342 86 2393 53 2337 87 2190 37 1598 63 1961 7 1697 97 1477 59 1417 29 1369 99 1240 67 1172 69 986 26 1087 20 1007
12162 -0.16200701215280083 2.6616342368599062 2.1276080075364869 3 3 2 0.38692688354676602 17 862 53 846 15 817 87 1389 71 1359 91 1464 63 1603 89 718 83 1073 98 711 38 598 7 624 47 707 97 930 29 468 19 829
12163 -0.23991084713297917 2.3623859684969291 1.9171409779794939 92 166 84 0.11065742939263419 37 576 59 368 19 318 92 750 15 704 7 483
12164 0.36446327592598743 1.1437557327014094 1.681216742836146 59 87 51 1.7297967391863107 63 1309 97 625 19 536 59 592 87 915 97 628 69 411
12165 0.27883080770801338 2.2130648946051124 1.8947299542751788 195 178 169 0.70388873900518056 83 1058 59 1057 19 764 92 733 87 575 71 493 63 493 7 965 48 329 97 824 29 1048 67 654
12167 0.231510161642245 0.91368139388495107 1.5599520553486383 197 195 141 0.28491736098133463 78 1764 92 1838 17 1912 86 2003 53 1948 15 1939 91 2036 19 867 22 1679 65 1305 64 1385 39 1348 37 1430 15 1459 91 1539 63 1277 87 1842 7 1100 97 957 59 561
12168 0.28921523728437709 0.97427332844590753 1.5729996016370003 203 196 144 0.27390196526138283 97 1392 59 1335 19 1376 17 2323 53 2392 83 1768 32 1851 7 1740
12169 0.37619371989577161 1.3647832800904669 1.91489411961109 63 108 54 0.53793027453911069 47 1760 33 1717 48 1798 87 2128 71 2127 63 1889 7 1629 19 1270 97 1419 59 1361 29 1163
12172 -0.63222702209093717 1.4482375607075348 2.0197547409544439 0 0 0 1.314513225496613 63 2297 7 2003 97 1766 59 1702 19 1552 97 1717 59 1664 29 1553 67 1231 69 1297 26 1263 20 1132 69 1329
12173 -0.6333134713396894 1.4465914468250411 2.0225347609574547 0 0 0 1.4645927439924549 63 2298 7 2004 97 1767 59 1703 19 1553 97 1718 59 1665 29 1554 67 1232 69 1298 69 1330 26 1264 20 1133 20 1187
12175 0.13612840749420607 2.1922170274716923 2.3713604125315282 0 0 0 2.2467162087308128 79 1021 91 1828
12176 -0.54673544339370361 1.2502859276258484 1.9691265395750277 78 133 69 0.051585746196078072 19 74 29 47
12179 0.35358362090126272 1.0780038729643995 1.6148318386621641 93 162 91 0.16199893053076125 59 53 29 64 63 115 71 126 89 101
12181 0.45615531049177932 1.0808901059563312 1.6081637843335643 64 102 62 0.051277285963792191 83 147 29 86
12182 -0.65386526551573643 1.4310767631597474 1.9779707273713074 254 254 254 0.78236286925894982 63 949 29 89 69 105 26 87 20 105 26 89 75 36
12185 0.39255963472260635 1.2106678084992868 1.7311959523826197 78 153 84 0.49880797056653325 15 186 29 110
12186 0.34241244237180896 1.2426217566859077 1.7725009783245393 82 160 92 0.11402413767937054 19 105 29 112 59 97 97 111 69 51
12187 0.41427349878281589 1.2317418249162959 1.749753936833899 81 145 83 0.041873870073431976 19 103 29 115
12191 -0.7106202438554633 1.6788394210695845 2.2011871146424697 3 5 2 1.7717425183208966 63 362 29 133
12192 0.42487341788773386 1.3214461507739907 1.8725890631248765 66 117 62 0.2016400527388551 19 135 29 152 26 93
12193 -0.2962530209050806 1.6270158902544161 2.2930221846885885 164 161 88 0.080907793372054615 83 831 29 196
12195 -0.37402829423976219 1.9729409448732562 2.0643455597236842 125 202 96 0.17882160172273456 63 425 29 242
12196 0.48441536994927831 1.516284089479921 2.0716664932964943 198 210 230 0.33791158295311807 97 719 29 259
12197 0.020193620489858444 2.0893444377006043 1.5927726513871037 194 207 114 2.9457577065709373 84 804 29 281
12199 -0.47704923204315652 2.1988870200002828 1.9814445550408355 0 0 0 0.35751068638364969 37 666 63 497
12201 -0.63798907539993666 2.2062381206872952 1.4114063215436705 0 0 0 2.5184356028166754 87 566 91 809
12202 0.76839079899116991 2.3540266786260116 0.41666663217523525 234 223 131 0.32763445300581145 59 51 29 348
12204 0.14590870367661718 2.0644997704369894 2.0467896376409156 170 163 88 0.2998038443748326 9 137 32 569 29 353
12205 -0.23009071348302734 2.3791084867678909 1.9131714595133744 245 230 138 0.24780426618247864 91 743 29 356
12206 -0.18645916679150557 2.3814553662892401 1.9070663779991643 234 224 136 0.48421003657805561 53 1374 29 363
12212 0.3570641707745893 1.994414800321944 2.1401111266642019 68 126 63 0.37938954166496053 83 534 29 384 58 73 72 71 45 48
12215 0.3956789267957756 1.9914919427011442 2.1538737828819352 72 122 53 0.18930333930646667 19 328 29 393 67 333
12217 -0.0018807056289628719 2.3486286180019196 1.9115704055866987 101 167 86 0.0023343212180150482 53 720 29 395
12223 0.1491057991617839 0.95282588378886768 2.1451608143944951 0 0 0 2.0419844355829917 37 187 38 177
12224 -0.11756278894918711 2.3983146076801414 2.3435859255908875 84 134 76 1.434821238350898 50 137 29 432
12225 0.13234161913202427 2.3904482362097119 1.9225770443787999 78 130 74 0.045502084140604436 19 382 29 434 67 317 26 272
12227 0.1578245355366085 2.494655305262123 1.9045693893672195 195 192 119 0.25273782827453567 19 420 29 464
12228 0.24335462750728165 2.4855546355002551 1.9953939764181821 94 174 95 0.63945468825479657 19 440 29 476 67 377 20 296 6 215
12229 0.38051730270789536 2.4078547486288633 2.2890058594560037 253 253 254 0.31755876442190151 59 896 29 492 69 880 20 816
12230 0.14130572365424848 2.8271824172436704 2.3047607693293108 249 254 255 0.60738789902820711 19 1088 29 510 69 1126 26 868 20 827
12232 0.2252121737343328 0.89117485941429853 1.5537490774483829 162 168 113 0.09577403110057324 83 706 89 830 29 529
12234 0.31223288002974003 1.0357559214587209 1.597418552681459 85 156 88 0.21640827832070061 89 850 29 550 53 929 79 71
12235 -0.76857759579010765 1.4676152024478089 1.9297397111697447 101 88 73 1.5240223704821949 19 903 29 565 99 1101 54 1084 69 739
12236 0.28869784851209496 1.1568398911413731 1.6982330003437933 80 160 89 0.11864685372744328 19 537 29 573
12237 0.36163959639135534 1.167331168797167 1.6921442140827503 107 166 100 0.27896421805936861 19 541 83 1196 29 577
12239 -0.78787950788996397 1.667389610363023 2.1601481062295509 129 101 78 0.12505199396645303 19 580 29 588 26 502 67 456
12243 -0.69732890328016595 1.5148729589110368 2.9223547738056692 174 171 94 2.7150012944918149 7 873 29 654
12244 -0.1285805555839987 1.8928302347504438 2.104156856700814 186 171 103 0.255042514331702 19 234 29 689 67 529 54 558 56 383
12245 0.38724764485019464 1.8812762215422807 1.6932402150551702 83 58 32 0.30692436962556369 59 688 29 711 69 752
12247 -0.20574330104544333 2.1259947513070059 1.9872118033520179 218 212 123 0.028798606492090269 19 702 29 716
12248 0.2475717291116773 1.1122910264931376 1.6858251881070609 0 0 0 0.034324448467519524 38 90 57 938
12249 -0.7167064537819815 2.0297730171834476 3.159275888158291 92 149 78 1.0225814252595744 62 1177 29 728
12251 0.30960884073773842 1.8494320772441577 2.2172344823541175 82 139 69 0.19325201777874615 50 848 29 736 67 841 5 462 24 371 40 489 16 561
12256 0.53441851399291251 1.7066857087006495 2.3364863511632312 252 253 255 0.36630345175814433 19 291 83 471 29 749 26 572 20 534
12257 0.10943643620621092 2.1113809892008581 2.0181746737655089 73 124 62 0.33803953559167355 59 321 29 752
12259 -0.20497577923764668 2.3954271160774745 1.9084577917807153 236 224 136 0.041764518670109899 83 1027 29 761
12260 -0.46567777161910884 1.8856420736790729 1.6012083524237635 0 0 0 3.2920587269190169 17 1258 39 1125
12262 -0.20701768410994292 2.4459293576508019 1.9057011290674939 204 215 127 0.09275161862299007 9 13 29 772
12265 0.37774134254936259 2.1021410103194222 2.0862214248400797 64 109 53 0.20876499285868547 19 769 29 791 67 348
12267 0.1790235337818242 2.4017439113010903 1.9374725046643391 62 122 69 0.044057310823018322 84 419 29 814
12268 0.20614282204146248 2.4048960982992562 1.9527978146346774 63 118 67 0.36423604239477575 19 803 29 816 67 677 69 250 26 626 20 250
12269 0.37615768550586404 2.3941242690148989 2.2521381894847843 255 253 255 0.62267634325241417 19 1079 29 835 26 1013 20 1035
12270 0.21351482447586304 2.6842276295043876 2.1031534647229586 127 107 85 0.57384787644613866 19 843 29 848 26 862 97 558 20 948 69 885 75 657 6 654 77 526
12271 -0.38658633042335488 0.99676619680018375 2.0911129294924327 167 149 126 0.47128205618102309 19 532 29 877 67 735
12273 0.42273116958359186 1.1135036225659409 1.6340977499954323 72 138 76 0.48601172693544542 19 877 29 897 20 31
12276 -0.94509639965102588 1.3784086448610984 3.1795887882511309 88 139 64 1.7560093611514129 97 1073 29 924
12277 -0.45660307349718032 1.5492042864548277 2.3790142494325242 88 139 64 0.25396365810952903 19 169 29 925
12278 0.42382294026130063 1.3853888076992547 1.943435355266377 135 126 82 0.21573229454741794 7 798 19 922 29 936
12279 -0.37632800076600581 1.758436344493097 2.2011197369369611 194 173 98 0.18650941759195402 19 641 29 948 67 497
12281 -0.33974435379569634 2.2771564683895567 1.9398424187240817 123 211 103 0.066630558386599703 57 1848 29 992
12283 -0.056139028592004522 2.1250461172883859 1.988302964516983 209 209 122 0.22548854924140396 43 1343 29 999 32 1388 53 1759 65 1522 22 1575 86 1826 51 698 54 811 87 1662
12284 -0.021554844409884904 2.127663050259879 1.9901629896609649 162 178 98 0.0014315376773130803 65 1508 29 1005
12287 0.30662359600966821 1.9394200115919478 2.1602893744049489 73 132 65 0.31363321799220534 19 998 29 1026 36 875 67 991 5 610 24 529
12291 -0.34938596578358982 1.7267863141694986 2.2231283116942833 65 115 54 0.55325802772928678 32 1248 74 1346 3 1363 62 1632 50 1359 86 1228 17 424 22 991 37 1236 3 1664 64 1953 78 1514 53 479 91 556 94 500 99 770 99 993
12294 -0.055401868475982892 2.4610581261436524 1.8951000442485133 231 223 142 0.15209997200904257 59 1092 29 1055
12295 0.16206751116610163 2.38533387464186 1.9373206183428002 189 176 119 0.21536547512665441 19 1056 83 1407 29 1077 67 858 26 829 55 219 56 314
12296 0.12786447981231247 2.64444661071084 1.9830776708804128 228 207 196 0.44133392795248927 19 1081 29 1091
12297 0.34697903482487868 2.4700409804711549 2.2268902829290282 253 252 252 0.84352079239350553 19 1234 29 1094 67 714 5 665 6 835
12298 0.15517413104470285 2.8145530718481937 2.3116348914836036 81 63 40 0.28246799232270192 19 1087 29 1101
12299 0.16115448921214606 0.69827607093417654 1.427128948601156 245 222 170 1.4892040188115341 59 535 29 1106 69 694 7 1364 20 668
12300 0.33587456576259411 1.0954395519199396 1.6268279494046065 80 158 88 0.016316492071509398 19 1106 29 1128
12303 0.40945363938426538 1.3362335915796211 1.8738884500445472 71 134 70 0.14278508376103263 19 1128 29 1156 26 906
12304 0.3993125702892148 1.867798413006923 1.7009029084602276 255 255 255 0.393482075730403 19 1299 29 1205 67 976
12307 0.53975667931076388 1.7202211442516246 2.3735411341423278 107 86 62 0.53165566353111882 19 1190 83 1344 29 1232 26 977
12309 0.41739031772492768 2.0527109294125703 2.1417177074215852 212 214 137 0.13260412726746162 19 1029 29 1249 67 1013
12311 -0.00095988616570007754 0.73299808263741373 1.5590244421771822 218 219 231 0.39913523571215004 19 1248 29 1282 26 882
12312 -0.72383726832064799 1.4922776582087041 1.9097607198081765 255 255 255 0.2251706039615361 19 1261 29 1297
12313 -0.27118688508748268 1.0958272492555692 2.2255767354100082 142 153 103 0.90620322128266451 29 1302 26 904
12314 -0.52217859340812012 1.5115319962763525 2.4153780783198933 81 137 61 0.49478828143912296 19 930 29 1307 67 1045
12315 0.53166603957211722 1.4937595144382791 1.9844962596595992 158 166 182 0.09271057487413939 19 1287 29 1326
12316 0.53166603957211722 1.4937595144382791 1.9844962596595992 158 166 182 0.09271057487413939 19 1288 29 1327
12317 -0.28261518351742754 2.2291913030204062 1.94977409827703 209 216 121 0.084755579878905279 57 2359 29 1341
12321 0.36148148415089926 1.971607975308199 2.1581265049775462 188 172 104 0.29115198927694258 19 1200 29 1357 67 1106 5 797 24 708 40 682 16 739 34 530 58 514 21 444 72 426 42 428 95 369 23 529
12322 0.30888211512938912 2.3184260943204302 1.932184599384088 172 145 109 0.077210608204320269 19 1344 29 1371
12323 0.54408516114573624 2.0112602117701099 3.0572944487376867 2 2 2 1.7485311928484666 19 1364 29 1380 67 717 6 541 77 247
12324 0.51432822183006 1.2940905653866326 1.7901130080165721 226 231 247 0.10358455930613762 19 1385 29 1389 69 1137
12325 -0.26173471617548949 1.6596134881153668 2.2678621320664574 82 146 67 0.71023505444993007 19 1292 83 1871 29 1399 67 1144
12326 0.48829920672491933 1.6704960806144862 1.7653103954133698 134 188 115 0.71263229317142796 19 1392 29 1405 67 1158 5 831 24 734 40 660 16 726 34 622
12327 0.093925920711305802 2.1348118798704223 2.0031650768935378 224 209 123 0.26947787395546108 32 1891 29 1420 9 1655 22 2096 74 1999 78 2231 84 1675 86 2512 64 2245 65 2152 36 1318
12328 0.29268491247770911 2.1551893880515429 1.8946397467577845 94 86 44 1.2924301331553556 97 1556 29 1427 26 1072 69 1073
12330 0.26191980838893869 2.4005025174084418 1.981737639365303 54 101 54 0.29365981086893261 83 1839 29 1436 67 1114
12331 0.26493597884427916 2.4399196498213103 1.9957965942102258 173 192 129 0.18478318864548932 29 1437 67 1183
12332 0.26581006868200874 1.0701077049818795 1.6559449890504649 134 166 107 0.20577788641343148 19 1446 29 1452
12333 -0.33272193303079511 1.7524266869753287 2.1993949334285081 85 148 69 0.78835029729470529 19 1394 29 1471 61 936
12334 0.34666190367423505 1.7580721643987525 1.6912058453308834 203 215 116 0.22044777642650662 83 1881 29 1476 67 1212
12335 0.37619734088421491 2.1497180725305491 2.0272480523851484 71 109 59 1.6369012600818558 7 967 19 1432 29 1485
12336 -0.032693803613199783 0.74078502071746044 1.6444256897484426 66 133 70 0.0080154333384086281 19 1493 29 1497
12337 0.43421489294112847 1.2139813040607796 1.7317130771214873 146 173 116 0.47604293369843503 19 1500 29 1509 69 1257
12338 0.4249364941502447 2.033975111231785 2.1754180653488246 129 205 109 1.6248625845741862 19 1574 29 1580 67 1290 5 957 24 837 40 813 16 871 34 701 58 620 21 617 83 1827 72 595 23 606 26 1280
12339 -0.71225784547182236 1.350461503589401 1.8953500570028299 0 0 0 2.3656953056357937 7 1960 75 875 29 1590 6 976 20 1129 26 1225 6 956 69 1215
12340 0.40058129585070579 1.9001115090548497 1.7541780466932582 94 120 66 1.5358535575241523 29 1596 67 1281 69 1333
12341 -0.03742723603683687 2.7034889186834077 2.1019545201924394 0 0 0 1.9180816660016631 19 1608 29 1611
12342 0.18320732552152669 2.4408052247194392 2.049277847236306 143 145 84 1.3852285238352733 19 1622 29 1623 20 1226
12343 -0.45507613127257507 1.3886251253425137 2.5357991984390233 44 71 37 0.32121189205489081 7 264 97 238 59 228 19 155 29 144 32 755 83 118 67 81
12344 0.00055266701982090648 2.1076173464231212 2.0033761791172067 64 117 59 0.22412571780552976 19 1180 29 1219 3 1930 74 1921 92 2196 78 2118 62 2273 22 1995 17 2266 32 1801 43 1762 65 2018 84 1586 50 1509 9 1559 83 1724 99 1150 51 1013 36 1217 53 2307 86 2377 7 1481 59 1040 97 1310 63 1745 54 1135 35 926 67 1075 56 782
12345 -0.10311822496460034 2.2044655918440919 1.9558310561617198 69 119 56 0.25448176500715175 22 632 50 91 29 339 62 1296 64 1127
12346 0.31306190935055994 1.03550444451297 1.5989581825987924 80 145 79 0.34766479859778066 92 1458 32 1219 83 1165 19 514 29 549 53 928 89 849 98 85
12347 0.28294209867398074 2.3979858741762956 1.9855952685376734 65 100 52 0.81740395751972439 63 617 7 1022 97 875 29 1083 78 1315 62 1340 22 696 3 1193 92 1353 17 1428 32 1112 15 1310 53 2152 71 1211 84 465 83 1417 67 889 69 599 26 997 20 771 5 217 6 207 24 129 16 152
12348 -0.30119850863348191 2.2988113236236822 1.9333025364225356 217 208 132 0.34155182932124067 78 2136 22 2007 3 1933 92 2213 32 1795 43 1722 62 2298 86 2542 65 2065 64 2154 84 1547 39 2034 37 2216 83 1720 29 1346 57 2366 91 2578
12349 -0.031523622834804206 1.9993340093005261 2.0577844035185535 195 191 113 1.7978868302745059 3 2067 92 2363 19 1411 63 2071 7 1791 97 1552 59 1399 29 1409 62 2371 86 2506 43 1846 53 2416 84 1668 50 1608 9 1663 83 1807 51 1107 18 1094 56 878
12350 -0.3020621806249445 1.7037798395529398 2.2387670342546278 71 122 56 0.94614579406364008 97 1537 59 1382 19 1462 29 1513 78 2395 62 2579 22 2247 3 2156 74 2129 92 2489 17 2522 32 2040 17 2582 86 2767 43 2004 53 2646 15 2646 65 2397 91 2786 64 2503 84 1825 50 1782 9 1849 39 2391 37 2583 57 2753 94 2517 83 1958 36 1515 99 1366 51 1257 54 1373 67 1242
12352 -0.46409585911768586 2.1516063697803425 1.9965269196513964 188 207 114 0.71386997461724677 97 1616 59 1561 19 1473 29 1530 78 2364 3 2132 74 2100 92 2458 62 2542 17 2543 32 2013 86 2718 43 1959 53 2610 91 2745 84 1779 37 2548 57 2710 94 2481 89 2430 83 1932 52 2005 12 1831
12353 -0.41514927661085854 2.0576467271386498 2.0126639074812522 191 227 119 1.5703914086465089 7 1974 97 1673 29 1528 32 2011 83 1972
12354 -0.33123643422516441 0.95551489866320816 2.0539591316440591 184 184 196 2.3257508727272538 19 54 83 30 32 25 78 867 62 1474 22 779 74 19 92 901 62 884 17 960 32 19 86 2056 53 968 15 1972 87 930 91 1655 17 956 87 919 63 842 63 848 83 29 7 713 97 632 97 636 7 114 59 602 59 605 29 540 19 522 69 61 69 68 29 536
12355 -0.37504633882196492 1.2356911612992481 1.2348642052575247 0 0 0 1.6410667135029355 15 199 39 258
12357 -0.072471300726889468 2.1159990364616172 1.9878636381152681 93 155 79 0.047774164032062819 19 710 29 996
12358 -0.12100694703504923 2.2380320468983488 1.9421795936126336 109 177 91 0.27840789111131226 14 1171 29 1015 26 557 41 670
12359 -0.61327809216102469 2.4925715343695876 2.0885421535937572 0 0 0 0.089231152874109793 83 1717 29 1223
12362 0.0092642373351910032 0.8479712139118365 1.622579737254042 214 206 153 0.1708733858020898 91 110 52 71
12363 -0.18711521223746586 0.69240505521206086 1.6780782339889349 204 202 211 0.18529203060702776 62 15 52 96
12366 -0.035213739484085023 0.97364546076914438 1.7373429518345709 202 209 159 0.0061829665050368247 37 152 52 118
12369 -1.3862349483295269 0.60212837855154944 1.1118528703894281 63 106 53 0.84259315380173638 14 563 52 127
12370 0.45079451695500378 1.4897478727898954 1.8531531349554771 174 150 128 0.5721670729065772 14 1096 39 840 52 134 8 805
12372 0.33917269025951413 1.7317681200744059 1.6959660051208743 59 94 39 0.054693252244494207 14 52 52 144 12 108
12376 -0.19227544666689542 1.022086713942866 1.9195061591510378 60 115 61 0.14742356842278784 48 119 94 217 52 205
12380 -0.23848593026098003 1.0257168475240959 1.9841473683425292 66 100 52 0.29642773574687381 37 299 80 184 52 226 94 237 57 273
12382 -0.3904125402808194 0.95583597030060952 2.0932926847437336 99 77 54 0.22053879312103311 14 391 52 279 12 192 41 238 8 200 90 114
12383 -0.39849977465928571 0.97119298942256493 2.1076005285298729 106 81 56 0.092673056785763916 14 397 52 287 12 198 41 250
12389 -0.35376388941756448 2.2687293403978637 1.9432411200158184 231 236 153 0.23746961925692522 57 647 52 408 15 675 64 618 65 617 17 1392 62 1323
12391 -0.18486424269127205 1.4263060345037724 2.4803043388235957 211 197 116 0.13561452176576574 37 1181 52 417 12 324
12398 -0.39348270725384343 2.0899111380190822 2.2650452478952308 81 126 62 2.2915449944728481 63 501 52 475
12399 -0.40093621987351002 1.3744342905483657 2.561046145797556 62 106 43 0.30157251979707028 14 543 52 481 41 418 8 362
12400 -0.62637117205341408 1.8729659195425803 2.1540824856063505 77 121 57 0.11645761030086386 39 666 65 672 52 488
12401 -0.4045559812837668 2.1240604037483144 1.9960532790868903 0 0 0 0.2197192709511977 15 608 78 665
12402 -0.74069262833242677 1.9919618509906611 2.113650339209999 71 117 53 0.13342566936870542 64 742 52 523
12405 -0.66042043834259667 1.582038330471855 2.3830128901325782 70 109 46 0.18829510041926362 14 571 52 528 12 430 41 436 8 353 90 301 18 312
12407 -0.68401764426331435 1.5972786748785053 2.3760069984722483 192 169 100 0.27604779034965732 14 577 52 535 8 356 18 308 44 111
12408 -0.78126924303320422 2.0508027112917353 2.1028566379801763 251 232 145 0.36061242664660875 91 831 52 536
12409 -0.8451433670284586 1.6533557598334276 2.2302456242640489 112 88 62 0.27447678417417737 14 594 30 408 52 546 12 439 41 443 8 337 90 663 81 739 49 675 85 498 61 113 4 89 18 267
12410 -0.84551998557892905 1.6531433130976692 2.2301146688178899 112 88 62 0.26117633680246993 14 595 30 409 52 547 12 440 41 444 8 338 90 664 81 740 49 676 85 499 61 114 4 90
12411 -0.88758679939768259 1.9334854662830612 2.2115353197763392 149 139 80 0.05150592911116051 79 598 52 583
12412 -0.88921380407349937 1.9269843268780269 2.2192951526987699 54 85 36 0.0066979243923201565 39 742 52 587
12413 -0.88921380407349937 1.9269843268780269 2.2192951526987699 54 85 36 0.0066979243923201565 39 743 52 588
12414 -0.91064728000871098 2.0507080663318717 2.1493491854443003 226 215 134 0.14362555623589068 39 749 52 589
12415 -0.94830060903435864 2.0314021174638381 2.1751033343493944 229 210 131 0.20517692248310063 79 628 94 727 52 602
12417 -0.4530853030198404 1.6151388867988017 3.2980831302335685 165 147 124 0.26840942058420514 79 684 52 647 88 843 85 383
12418 0.4518486415003955 1.0354791621787727 1.521581494401139 222 224 237 0.96139062932818997 14 7 52 666
12419 0.11330173414597011 1.3102650421999387 2.0183690226036224 0 0 0 0.053498955443062601 30 203 80 252 38 216
12420 -0.18761172959096559 0.81893583742859211 1.7550705033347764 190 185 135 0.077087974688432565 94 864 52 722
12421 -0.18761172959096559 0.81893583742859211 1.7550705033347764 190 185 135 0.077087974688432565 94 865 52 723
12427 0.27621013969780889 1.8938850077162155 1.6383640400459711 245 223 174 0.16950710986903125 14 693 52 749 12 126 41 72
12429 -0.15026813424664814 2.4109534963576964 1.9068487224168038 0 0 0 0.0065151234733692408 17 1432 22 1248
12430 0.23004172670685907 0.94880092135878791 2.14225016727009 145 141 96 2.1012717862393866 89 195 52 768
12434 -0.27649618494964395 0.91304349405407326 1.978403631247809 91 103 68 0.11079993190549114 80 164 52 792 12 161 49 78 81 92 88 85
12435 0.31082771749598387 2.2184112530991755 1.8823745350545813 227 221 202 0.15776338617731211 14 716 52 802 12 713
12436 0.28251497732817793 2.1419894566982438 1.9858271803921064 0 0 0 0.6892711865795067 79 1353 52 812
12438 -0.42145219367013775 1.0435972321892424 2.2054876818762654 130 125 124 0.22818947066076639 14 929 52 880 12 779 41 1091
12440 -0.63601968986838231 1.2269004505998284 2.0401088146185691 67 114 44 0.15405239833692594 79 318 52 901 12 789
12442 -0.25464473224833012 1.8841436406916645 2.1012653382491395 87 148 73 0.15804200902468984 94 1130 52 907 12 276
12443 -0.30293535985098874 2.1691734833100837 1.9656803228527837 229 225 143 0.60803621694497223 94 1621 52 916
12445 -0.41145532842205201 2.1608287341184815 1.9787111234490939 102 179 83 0.0031560023197814979 79 1023 52 940
12446 0.33638599291896648 2.6014846016803017 2.5131965627999944 90 161 74 0.36621289933869505 86 1340 52 952
12447 -0.46169129023657651 1.8498696241912538 2.1424544125018472 244 226 140 0.0040816830522598631 50 696 52 960
12449 0.24008122791093142 2.3546814053124865 2.7216869484746673 150 162 90 0.31704159205265342 86 1273 52 988
12452 -0.022918113094989076 1.1122779751920129 1.8868964337948044 0 0 0 0.13146988553790423 7 725 63 854
12453 -0.681805665302882 1.9483510222193727 2.1227213573606805 118 155 73 0.081308802632709606 83 233 52 1024
12456 0.14215587971459751 2.0061405485027399 3.024792082009089 192 170 100 2.0591291540589389 86 1195 52 1039
12457 -0.77475417879758857 1.9865768060533546 2.1292511951306072 191 181 108 0.25554561585178709 53 1273 52 1045 39 1680
12460 -0.90541303593649469 1.8262297651750825 2.3202928988939071 94 72 52 0.2604398392596145 14 1049 52 1092 28 754
12463 -0.12531938543765866 0.83515628393151542 1.7139961836945827 62 110 51 0.058556014619352531 89 1376 52 1165
12465 0.35437938645679551 1.7184578243236406 1.6852357121828394 63 97 43 0.33865631440021526 14 1456 79 1270 52 1170 12 656 41 971 8 795
12467 0.31397778016473804 1.8216318968840475 1.7133303982008634 104 87 48 0.57768740879061398 14 697 52 1188 12 1078 41 591 8 479 90 451 81 600 49 849 88 901 85 644 28 929 61 342
12470 0.23937240688261729 2.2126818143129947 2.0086176937357165 155 134 93 0.8718273278510269 79 1366 52 1231 41 1003 41 1282 8 1048 14 1794
12471 -0.40505172832131026 0.97582505970698985 2.121908608840013 225 202 159 0.22862263343506664 14 1293 52 1241 12 1353 41 1329 88 1151 81 1165
12472 0.26721363984542268 2.2645960454484779 2.6084561752795219 241 228 142 0.91554396569494645 79 1722 52 1300
12474 0.93924115864764779 2.6349236500017748 3.2276489461867808 0 0 0 2.2553409680666698 39 943 94 1617
12480 -0.62043806977403704 1.583743665803639 2.3714980130768533 149 146 82 0.15493440235677081 14 1597 52 1350 12 1226 41 1386 8 969
12481 -0.3353093968945714 1.9217830926874357 2.0868491907981266 0 0 0 0.32115178818490686 83 1266 84 1068
12482 0.040581014011817018 2.5187824624905164 2.7025513454212668 71 119 53 0.63885699100328741 86 1886 52 1360
12484 -0.65042320138085552 1.5718256071127406 2.3890628934179947 73 112 48 0.29883665821289745 14 1397 52 1365 41 1178 8 982 18 839 27 501 44 460 100 277 46 212 1 369
12485 -0.65045093384024855 1.5726651414405461 2.3891264524377536 73 112 48 0.36218501054081348 14 1398 52 1366 12 927 41 1179 90 909 8 983 18 840 44 461 46 213 1 370
12486 -0.680351706985872 1.6074027469950576 2.3655121598051596 58 98 38 0.35174365470088059 14 1400 52 1372 12 1241 41 1181 8 981 18 834 27 496 44 450 100 270 1 367
12487 -0.68360914969698827 1.556936266587529 2.4265966359080058 179 172 89 0.32456425222637153 14 1415 52 1378 41 1200 12 1252 8 998 90 922 49 967 28 721 61 652 4 403 27 384 70 300 11 293 13 483 68 275
12488 -0.92407098691868428 1.9032636337395914 2.2566602107018396 130 133 69 0.92361061298021918 14 1043 52 1400 12 984 90 683
12489 0.37542191345510312 1.6717521257096144 1.7101906188826266 62 94 40 0.1812311016350821 79 1267 94 1805 52 1448 12 1065 41 1255 8 1035 90 767
12492 -0.65666329067490703 1.2625212417566898 1.9426484803623083 66 105 48 0.20085284806326947 79 1327 52 1518 12 1359 41 1340
12493 -0.76418037687218721 1.4499941776307188 1.8988341308947558 114 86 60 1.1031458951634212 79 1859 52 1528 12 1376
12495 -0.45920771458495024 1.4603382162673386 2.4656954979111578 188 169 99 0.24875279830170932 14 1750 52 1565 12 1593 41 1527 8 1325 90 1180 18 1131
12496 0.031599719016979798 2.150223177339563 2.6683116316025841 65 110 53 0.94882288247409963 79 1740 52 1566
12497 0.18484861115452322 2.3667237321663754 2.7353720193417654 74 122 58 0.58325099534685421 86 2175 52 1567
12501 -0.46061156617934612 1.3997980439665003 2.8699749714314229 185 161 127 0.85414718194321448 80 597 52 1601 12 1625 41 1420
12503 -0.92178503324294792 1.9324521509035975 2.4860173620233179 186 163 130 1.4338103347491746 94 744 52 1620 12 1629 41 1423 90 1091 81 1383 49 1182 85 990
12504 0.59110892742046617 1.2623903819073337 1.7526020917235769 211 211 222 0.60119204842828067 14 1630 52 1640
12505 0.40076830269249963 1.5946024353429262 1.7763813385255824 46 87 34 0.23194296056344652 79 1621 52 1652 12 1510 41 1449 90 1114
12507 0.27021199204997887 1.9144237339429953 1.6568033606063908 93 80 44 0.63683324951663078 14 1461 52 1662 12 1519 41 1264 8 1037 18 390 81 1309 49 1208 88 1320 28 1304 85 918
12508 -0.7770655681848857 1.4331379590174549 1.9097273940186816 230 210 172 0.20740486274449629 79 1669 52 1706 12 1553 8 1102 90 1010
12509 -0.32922595229682472 1.8610683331900075 2.1233455983123668 231 220 134 0.11349183410669485 57 2344 52 1708 12 1392
12511 0.5199182143358918 2.5736374264337791 2.7777133454340661 225 218 135 2.858854758339155 94 2261 52 1719
12512 0.42560715647792863 2.6478706687866453 2.7578204638502433 81 146 67 3.3101216757263288 94 2126 52 1725
12513 0.079555845542512937 1.7123126375566418 1.3673822655101686 0 0 0 0.67379729117168352 48 1782 84 1673
12514 0.3791320234315036 1.1478721857908536 1.6711414026395353 0 0 0 0.003773962864230194 48 1781 87 2242
12515 -0.57038718261498134 1.8555766354994989 2.1555274326928648 86 129 62 0.71400594745672019 37 2359 52 1727
12517 -0.60742272463804048 1.9207103836548545 2.1250572856467778 94 132 64 1.4297954468096319 65 2191 52 1732
12518 -1.2668403801489097 1.731474696678845 1.5769252270998249 229 223 141 2.5163113390078582 80 1805 52 1735
12520 -0.59024454347655864 1.5438243360557677 2.4053847125668355 189 167 98 0.22382706517424392 14 1755 52 1744 12 1429 41 1532 18 1063 44 612 27 612 70 527
12525 -0.89248921935553993 1.8532881576109017 2.4776270200832236 198 173 135 0.47644690581944471 14 1614 94 1999 52 1773 41 1548
12528 -0.15043721407065774 1.1237491316882013 1.992704078840045 177 192 138 0.49577578682851642 94 2325 52 1803 12 1660
12529 -0.39327601541356277 1.206915702632043 2.4973284276017922 204 180 142 0.68101190325092398 94 2097 52 1848 12 1714 41 1689 14 1847 88 1443 28 1443
12531 0.514121336391129 1.3847753836554422 1.8656897062423425 145 134 112 1.5856916592368326 94 2380 52 1892 12 1646
12532 0.25356686131444106 2.1907632658146321 2.0309569461672656 75 82 37 0.80428286683877093 79 2021 52 1914 12 1671 41 1637
12533 -0.2421659338341981 2.2676580363174463 1.9386064561415866 110 204 96 0.29722590200098059 94 2409 52 1929 12 1700
12534 -0.85135685660273464 1.6962283331298149 2.3116014248294712 251 235 184 0.47921373683809337 14 1921 52 2017 12 1897 41 1788 8 1438 90 1381 81 1564 49 1442 88 1567 28 1579 85 1110 61 1056 4 888 27 771 100 657 70 682 11 725 13 719 68 594
12535 -0.17653826295729302 0.80802360217069058 1.7423629226879547 82 119 58 0.3691456878157317 71 2467 52 2026 12 1857 81 1528 49 1396 88 1530 28 1567
12536 -0.10845984597676216 0.99111048661536938 1.8050425221096063 67 130 67 0.95052305171647511 37 2568 52 2029 12 1814
12537 -0.63841319395512597 1.8269161863481893 2.192815551972854 178 171 99 0.46849437648812914 14 2010 52 2065 12 1840
12539 -0.82122283527457141 1.6303963448823211 2.2411384102694858 222 198 153 0.55114750717617011 14 1972 52 2072 12 1891 41 1784
12540 -0.65735985766471539 1.5502198316053117 2.4667060650242174 141 165 78 1.5215188817966432 14 1969 52 2076 41 1787 12 1895 8 1478 90 1382
12541 0.034393006040473253 2.5084863066421215 2.4468932434971338 145 161 89 0.64901278994251754 94 2526 12 1923
12543 -0.4511951451947801 1.385079275532495 2.595044773511157 110 111 52 1.5732967270731968 39 2403 52 2115 12 1934 41 1820 81 1611 49 1487 88 1615 85 1148
12545 -0.89937153021169136 1.9169739082433039 2.2352602490381379 63 113 48 0.29822760397172149 64 775 39 748 37 811 52 595 79 606 30 517
12546 -0.96217213507640909 2.0457094487600203 2.174831183642179 126 127 70 0.42607769332532985 37 1410 57 1502 52 607 14 608 94 733
12547 -0.96672070312795955 2.1108230861958908 2.2906530926888666 42 88 44 1.9326537130212442 94 2191 52 1774 79 2165 38 2142 89 2383 98 2372 33 2178 30 2040 12 1744 81 1515 49 1386 88 1520
12548 -0.28271199650674517 1.0063659084138195 2.0602969798452566 46 98 51 0.39134358511857364 98 1452 47 870 33 1380 38 1291 80 1323 30 1252 52 1222 65 331 64 1061 39 1062 37 1574 57 1653 94 1487 12 1341 52 1481 81 1161 49 1062 88 1143 28 1142
12549 -0.81913523451147074 2.0437698135882374 2.1173161016417437 137 130 78 0.15111257066793055 15 1788 87 1665 52 1388 62 1741 86 1944 53 1794 64 1789 14 1388 41 1159 39 1688
12550 -0.97547145240316135 1.9749591977583287 2.2153156294462626 229 215 122 0.58287722746486859 37 1849 57 1939 14 1430 52 1408 79 1150 98 1242 38 1083 80 1120 41 1210 8 974 90 915
12551 -0.2712538219091471 0.92618300769835482 1.9750031345200327 50 104 53 0.33700401577719313 47 847 33 863 52 1474 78 97 86 1571 91 2091 37 1927 57 2017 94 1823 98 1431 79 1626 80 1306
12552 -0.27532061761713628 1.0279243388339303 2.0560977671997471 54 111 56 0.49174396682730465 47 1755 98 1812 33 1716 38 1623 52 1676 15 965 71 1486 91 1658 64 1060 65 1021 39 1502 37 1576 57 2028 94 1829 89 1831 79 1840 14 1242
12553 -0.20516090733764286 0.70906696858806206 1.8153863625392626 103 103 108 2.9823809172845195 39 1440 52 732 64 1481 37 1491
12554 0.2825149773281786 2.1419894566982438 1.9858271803921064 0 0 0 0.68927118657951647 79 1352 52 811
12556 -0.032570892128868038 2.3783386307965242 1.9016874016172829 99 182 83 0.11374431146799403 84 799 36 25 51 15
12558 -0.092284745951393202 2.1173368304358355 1.9893862111107921 79 135 59 0.010356548073030478 83 443 36 71
12560 -0.12482702809261757 1.8731722017436214 2.1207696181051969 162 152 102 0.40529332859778383 39 411 91 529 35 524
12563 -0.33673890551034191 2.1387744864035314 1.9821879507152649 96 169 77 0.20956566645275704 84 183 36 80
12564 0.12863432568995536 2.07035264382553 2.0432724481977611 184 179 98 0.1693285753564332 92 654 36 87
12565 0.36258469247076003 1.6823295069076349 1.7964140515935121 215 203 165 0.31564514167225549 64 140 36 93 35 78
12569 -0.42469227673283677 2.0844029152460362 2.0152833199874247 96 163 75 0.25511025990497399 65 624 36 107 15 595 53 632
12571 -0.29005686203641823 2.0347096650279086 2.0226991529213891 240 223 143 0.15499232986118963 53 591 91 630 36 114
12576 -0.3052808236176161 1.9255784229041768 2.0804808135210924 56 96 49 0.094429775469156735 78 525 36 165
12579 -0.28706085805771181 1.9067653456622196 2.0890587117626782 67 109 53 0.072913847627079975 74 415 36 171
12588 0.37792743948231206 1.0756436616283027 1.6045517812620216 0 0 0 0.099805475989096254 71 884 89 90
12590 -0.21092786682734713 1.8039280216852138 2.1538913849014305 153 146 93 0.13830434610334258 65 455 36 215
12592 -0.17552215530795273 1.0645115276834021 1.9432272685449428 0 0 0 0.11066372691101319 30 130 38 156 80 175
12594 -0.13208081730135221 1.7765415477231234 2.1789862338715835 179 163 107 0.064290392987064904 14 300 36 225
12596 -0.058406498067050457 2.2325063516618604 1.9461274281360132 0 0 0 0.073617248337214669 15 621 62 682
